ply
format ascii 1.0
element vertex 470
property float x
property float y
property float z
end_header
0.10206667333841324 0.17416979372501373 0.3047047257423401
0.2204180806875229 0.42750635743141174 0.5981693267822266
0.0887557864189148 0.06189661845564842 0.07893454283475876
0.0887557864189148 0.06189661845564842 0.07893454283475876
0.09118226915597916 0.047685202211141586 0.07820667326450348
0.043487414717674255 0.07144930958747864 0.13936510682106018
0.040268875658512115 0.23445919156074524 0.2551004886627197
0.1025041714310646 0.5924820899963379 0.5211401581764221
0.10080517083406448 0.5951055288314819 0.611434817314148
0.11237428337335587 0.5959091782569885 0.5905113816261292
0.159927636384964 0.6276095509529114 0.7048200368881226
0.19956986606121063 0.7148929238319397 0.845814049243927
0.14240270853042603 0.6404675841331482 0.6969041228294373
0.17591316998004913 0.6841972470283508 0.7839334607124329
0.009730148129165173 0.24336786568164825 0.14351637661457062
0.13278278708457947 0.6336638927459717 0.6696596145629883
0.16115504503250122 0.7482113242149353 0.7996724843978882
-0.21296577155590057 0.49551042914390564 1.1907002925872803
-0.525305449962616 0.17389634251594543 1.7110289335250854
-0.19979184865951538 0.17742133140563965 0.8812011480331421
-0.1523776799440384 0.07147762179374695 0.6202071905136108
0.003288662526756525 0.11232573539018631 0.38559865951538086
-0.20527973771095276 0.035302434116601944 0.8133881092071533
-0.04264432191848755 0.28206366300582886 0.33397772908210754
-0.14215464890003204 0.2648627460002899 0.5909523367881775
-0.24687710404396057 0.4605562090873718 1.0834852457046509
-0.3815365135669708 0.22564491629600525 1.6631073951721191
-4.599033832550049 6.646592617034912 11.207690238952637
-0.16898338496685028 0.20943810045719147 0.545921802520752
0.055862411856651306 0.04809866473078728 0.3394755423069
0.001063985051587224 0.0006688248831778765 0.005447080358862877
0.011476819403469563 0.01205454207956791 0.03493086248636246
-0.525305449962616 0.17389634251594543 1.7110289335250854
-0.08495105803012848 0.2723240554332733 0.5657729506492615
-0.06151001155376434 0.08244384080171585 0.4413567781448364
-0.21683500707149506 0.06316909939050674 0.8668654561042786
-0.10900048166513443 0.29882657527923584 0.7062309384346008
-0.034073807299137115 -0.016191666945815086 0.3061542809009552
0.10922115296125412 0.22792747616767883 0.29453638195991516
0.08975008130073547 0.26681265234947205 0.2987089157104492
0.11544399708509445 0.24053339660167694 0.3109504282474518
0.10635682195425034 0.18027208745479584 0.2677557170391083
0.12770895659923553 0.24287444353103638 0.26081860065460205
0.13601642847061157 0.23746979236602783 0.32615190744400024
0.08975008130073547 0.26681265234947205 0.2987089157104492
0.260846346616745 0.013010915368795395 0.044311732053756714
0.1220402866601944 0.18378669023513794 0.3078451156616211
-0.08069819211959839 -0.03765662759542465 0.3085636496543884
0.1818717122077942 0.39722561836242676 0.3476172387599945
-0.09868695586919785 0.687423586845398 0.684602677822113
-0.04656776413321495 0.5739284753799438 0.584726870059967
-0.10921236872673035 0.7140248417854309 0.6915498971939087
-0.12921705842018127 0.6610352396965027 0.6677519083023071
-0.10921236872673035 0.7140248417854309 0.6915498971939087
-0.10384871810674667 0.5393722057342529 0.5640711188316345
-0.12047681957483292 0.6851873397827148 0.6781371831893921
-0.11795327067375183 0.6551045775413513 0.6699812412261963
-0.09055163711309433 0.7108997702598572 0.7137007117271423
-0.12976579368114471 1.7766321897506714 1.5185812711715698
-0.20441100001335144 0.5868587493896484 0.8419494032859802
-0.11689988523721695 0.7555949091911316 0.7121033668518066
-0.15463848412036896 0.937623143196106 0.8510425686836243
0.42459961771965027 0.12767116725444794 0.8958933353424072
0.42459961771965027 0.12767116725444794 0.8958933353424072
0.4732249677181244 0.1408403068780899 0.9307191371917725
0.4084970951080322 0.1293637454509735 0.8058068752288818
0.019841892644762993 0.03911206126213074 0.0658588632941246
-0.0024890259373933077 -0.002982580801472068 0.03633876517415047
-0.09722732752561569 0.08170215785503387 0.300865113735199
0.4732249677181244 0.1408403068780899 0.9307191371917725
0.05505455285310745 0.13891340792179108 0.5290236473083496
0.035510238260030746 0.06971240043640137 0.13073816895484924
3.611490989076371e-15 4.4019934338869525e-16 1.0321858791946179e-14
0.0024653347209095955 0.054545436054468155 0.010959933511912823
-0.0019597706850618124 0.09433197230100632 0.3307189643383026
0.022369682788848877 0.01098906435072422 0.028400283306837082
0.01298777386546135 0.15698657929897308 0.17865853011608124
0.011621050536632538 0.09411489963531494 0.18470533192157745
-5.89313822274562e-06 0.00493139773607254 0.005278249736875296
-5.89313822274562e-06 0.00493139773607254 0.005278249736875296
0.0008443874539807439 0.017692625522613525 0.01427255105227232
0.07672227174043655 0.07412640750408173 0.10452750325202942
0.006036705803126097 0.010289348661899567 0.016304634511470795
0.4421340525150299 3.9417669773101807 4.734842300415039
-0.10833290219306946 0.9259923100471497 1.2210522890090942
0.045686304569244385 0.20981907844543457 0.3596131503582001
0.06234747916460037 1.3565680980682373 1.7146552801132202
0.11118517071008682 0.5354891419410706 0.8065839409828186
0.12323898822069168 0.455819696187973 0.7707558274269104
0.10787882655858994 0.5560926198959351 0.8045052886009216
0.02766975201666355 0.6673708558082581 0.8710034489631653
0.09528812021017075 0.5937289595603943 0.8272115588188171
0.23193831741809845 0.1779792159795761 0.644564688205719
0.10073189437389374 0.643092691898346 0.8744486570358276
-0.0355243980884552 0.8539054989814758 0.8950662016868591
0.10642368346452713 0.5350714921951294 0.783660352230072
0.09231661260128021 0.5604318380355835 0.8044295310974121
0.08687425404787064 0.6021118760108948 0.8205897808074951
0.011263380758464336 0.13188180327415466 0.2544877529144287
0.06214416027069092 0.2739328145980835 0.3850204348564148
0.181792750954628 0.6146981716156006 0.99178546667099
0.060094863176345825 0.1633903831243515 0.18747453391551971
0.23747915029525757 0.042233165353536606 0.3583773374557495
0.1815153956413269 -0.013227870687842369 0.3547697961330414
0.05889083072543144 0.002222980372607708 0.12369558960199356
0.013280674815177917 0.01218707300722599 0.09697941690683365
0.08013521879911423 0.00487380800768733 0.33954232931137085
0.11176322400569916 0.3270986080169678 0.358436644077301
0.2617914080619812 0.17269447445869446 0.3914524018764496
0.34861212968826294 0.22819577157497406 0.2636925280094147
0.09518585354089737 -0.018684731796383858 0.3335699141025543
0.14215770363807678 0.09678848832845688 0.37859204411506653
0.14961396157741547 0.0965142622590065 0.3811149299144745
0.12633752822875977 0.01933535933494568 0.3561152219772339
0.0078139528632164 0.10093049705028534 0.1825057566165924
0.05636909231543541 0.05823420733213425 0.14891885221004486
0.08634305000305176 0.013880634680390358 0.12325892597436905
0.05271455645561218 0.0024775187484920025 0.1166982650756836
0.03835870325565338 -0.017263196408748627 0.12832872569561005
0.19878767430782318 0.16625407338142395 0.3926885426044464
1.972617268562317 5.009138107299805 5.376515865325928
1.4621365070343018 4.451157569885254 4.709012031555176
1.8346450328826904 4.879759311676025 5.2284159660339355
0.7525495886802673 3.779874801635742 3.1487410068511963
0.40727582573890686 3.3388326168060303 2.567939043045044
0.8333635926246643 3.7074403762817383 3.864445924758911
1.9183635711669922 5.348355293273926 5.572986602783203
1.8070310354232788 5.478420734405518 5.93409538269043
0.6386706233024597 3.56402325630188 3.2288708686828613
0.2481462061405182 2.4137797355651855 1.5958161354064941
1.571533441543579 5.0369720458984375 5.220623970031738
0.8072257041931152 3.750729560852051 3.6005425453186035
0.8072257041931152 3.750729560852051 3.6005425453186035
1.570170283317566 4.465441703796387 4.70634126663208
0.18337669968605042 2.2358012199401855 1.4955979585647583
0.24939191341400146 2.6292150020599365 1.7471884489059448
0.14728331565856934 1.0618667602539062 1.1749117374420166
0.15644647181034088 0.6922934055328369 0.8708526492118835
0.12832851707935333 0.6784397959709167 0.8722167015075684
0.16601601243019104 0.6289429068565369 0.8141162395477295
0.23554807901382446 3.6221697330474854 4.53527307510376
0.15213355422019958 0.6943212747573853 0.8717873692512512
0.6075406074523926 3.260025978088379 4.046855449676514
0.23620668053627014 1.0299079418182373 1.3916031122207642
0.099399633705616 0.6308353543281555 0.8684660196304321
0.12817323207855225 0.6914575099945068 0.8568447232246399
-0.14626076817512512 1.7286083698272705 1.2385355234146118
-0.2164720892906189 1.5460268259048462 1.0940783023834229
0.2114362269639969 1.9903086423873901 2.566498279571533
0.41026514768600464 0.5649341940879822 0.7127873301506042
1.0982816219329834 0.9440932869911194 2.0676050186157227
0.15080642700195312 0.11103705316781998 0.3550494313240051
0.18372993171215057 0.2092805951833725 0.5375182628631592
0.39752620458602905 0.517103374004364 0.6247329711914062
0.3980954885482788 0.5161075592041016 0.6261333227157593
0.02535257302224636 0.0289359949529171 0.28694257140159607
0.19019466638565063 2.2541329860687256 2.104168176651001
0.004667066037654877 0.06333542615175247 0.13842754065990448
0.24001236259937286 0.10379631817340851 0.21979089081287384
0.30985167622566223 0.3317200243473053 0.5108402967453003
-0.017841005697846413 -0.003991415724158287 0.05141567438840866
-0.006455936934798956 -0.011733842082321644 0.02571769617497921
-0.0026090526953339577 0.278602659702301 0.35959571599960327
-0.017018048092722893 0.01743273437023163 0.07452145218849182
-0.023189278319478035 0.315053254365921 0.5250065326690674
0.019083674997091293 0.27974754571914673 0.5257411599159241
0.19486841559410095 0.4995711147785187 0.7871639728546143
0.23376645147800446 0.6136581301689148 0.685501217842102
0.31690070033073425 0.6593788266181946 0.6817576885223389
0.288974791765213 0.6460291147232056 0.6770369410514832
0.20911186933517456 0.5863084197044373 0.6701411008834839
0.31690070033073425 0.6593788266181946 0.6817576885223389
0.17506422102451324 0.510449230670929 0.723990261554718
0.28065913915634155 0.6479545831680298 0.6794621348381042
0.18205603957176208 0.4895790219306946 0.7257289886474609
0.31690070033073425 0.6593788266181946 0.6817576885223389
0.2919718325138092 0.6428219079971313 0.7068790793418884
0.31062495708465576 0.682946503162384 0.6735347509384155
0.11289854347705841 0.33752143383026123 0.3383201062679291
0.11131591349840164 0.3373253345489502 0.35453560948371887
-0.05537160113453865 0.03891269862651825 0.4933825731277466
0.0671604797244072 0.12413027137517929 0.582592248916626
0.01843533106148243 -0.004040895029902458 0.0554274320602417
-0.06954411417245865 0.08371283859014511 0.37893638014793396
0.10021817684173584 0.080672487616539 0.24560928344726562
0.08267482370138168 0.01943078264594078 0.12843015789985657
0.07121138274669647 0.03940800949931145 0.1747427135705948
0.6893961429595947 0.1394573152065277 0.8708695769309998
-0.003445497015491128 0.005434795748442411 0.022041121497750282
-0.004357208963483572 0.09288706630468369 0.10722757875919342
-0.005527815781533718 0.043496161699295044 0.04661514237523079
0.010458491742610931 0.2047530710697174 0.1311541497707367
-0.02768993191421032 0.6569055914878845 0.5426924228668213
0.0012493449030444026 0.14896702766418457 0.1137978583574295
-0.007092515472322702 0.07476109266281128 0.06115517020225525
0.0007167484727688134 0.27187955379486084 0.2321106493473053
-1.2984379529953003 6.005180358886719 4.701407432556152
-0.10900233685970306 0.6619388461112976 0.6475187540054321
-0.09683925658464432 0.6808005571365356 0.7318055629730225
-0.1311246007680893 0.7324540019035339 0.8032967448234558
-0.20145907998085022 1.715904712677002 1.8664424419403076
-0.1894243359565735 0.9139134287834167 0.9669586420059204
-0.022826077416539192 0.09859935194253922 0.10806500911712646
-0.08266735076904297 0.671980082988739 0.7311150431632996
-0.022826077416539192 0.09859935194253922 0.10806500911712646
-0.09099020808935165 0.6668640971183777 0.7125620245933533
-0.033846013247966766 0.1365174800157547 0.14080704748630524
-0.05388899892568588 0.279987096786499 0.29119497537612915
-0.09542428702116013 0.6624639630317688 0.7180500030517578
-0.10348756611347198 0.7144344449043274 0.765078604221344
-0.06677575409412384 0.41612744331359863 0.44086897373199463
-0.1048610508441925 0.6900359392166138 0.7405166625976562
-0.15499790012836456 0.8189965486526489 0.8814219236373901
-0.14835788309574127 0.7250387668609619 0.8034375309944153
0.6686348915100098 3.4058148860931396 2.293001890182495
0.6340146064758301 3.600245475769043 2.4104840755462646
0.6142415404319763 3.695194959640503 2.5026779174804688
0.6142415404319763 3.695194959640503 2.5026779174804688
0.6225722432136536 3.692758560180664 2.4604244232177734
0.7285029888153076 3.01837158203125 2.08042049407959
0.6340146064758301 3.600245475769043 2.4104840755462646
0.6061080098152161 2.724198579788208 1.819536805152893
0.4989577531814575 4.4921722412109375 2.999701738357544
0.6686348915100098 3.4058148860931396 2.293001890182495
0.5716772079467773 3.3535590171813965 2.2575809955596924
0.6034844517707825 2.935211181640625 1.959921956062317
0.5128043293952942 4.296504020690918 2.9846274852752686
0.4989577531814575 4.4921722412109375 2.999701738357544
0.6849762797355652 5.542767524719238 3.7503557205200195
0.878523588180542 7.136066436767578 4.8099541664123535
0.6000264286994934 3.1801114082336426 3.187079668045044
0.6467515826225281 1.874083161354065 2.334103584289551
0.6068267226219177 2.3983914852142334 3.052507162094116
1.4077461957931519 10.400228500366211 8.666793823242188
0.696306586265564 1.6812793016433716 1.3518158197402954
1.2522401809692383 8.020793914794922 6.505817890167236
0.1757594645023346 0.12950150668621063 0.3052580654621124
0.044279795140028 0.7549274563789368 0.5581164360046387
0.02962619438767433 0.4686693847179413 0.32949039340019226
0.04242618381977081 0.8062939047813416 0.568301260471344
0.0602104514837265 0.8208798766136169 0.5715609788894653
0.05548914149403572 0.8149523735046387 0.5683926343917847
0.017350779846310616 0.385699987411499 0.4930858314037323
0.05483010411262512 0.6963412165641785 0.5001545548439026
0.05359771475195885 0.8153753280639648 0.5734782218933105
0.04008587449789047 0.31008437275886536 0.39756491780281067
-0.009783897548913956 0.031909823417663574 0.04040319845080376
-0.017684059217572212 0.10512226819992065 0.1188046932220459
0.0385204516351223 0.11916575580835342 0.26910167932510376
0.00948855746537447 0.22929681837558746 0.26085489988327026
-0.0022220921237021685 0.06365764141082764 0.056832022964954376
0.020006602630019188 0.023151390254497528 0.15170243382453918
0.38156577944755554 0.41271522641181946 0.5308712124824524
0.14906902611255646 0.6708427667617798 0.7522388100624084
0.1944451928138733 0.6080251336097717 0.7161316871643066
0.16801734268665314 0.6421939730644226 0.7473341822624207
0.18691009283065796 0.6302877068519592 0.7317653298377991
0.1797250211238861 0.6197015047073364 0.7037619948387146
0.1617637425661087 0.7243785262107849 0.7822088003158569
0.05811402574181557 0.4913395941257477 0.40675780177116394
0.17168284952640533 0.6791089773178101 0.7761899828910828
0.17232024669647217 0.6713032126426697 0.7570133805274963
0.15241684019565582 0.6533307433128357 0.7139496803283691
0.15997840464115143 0.7074866890907288 0.7747843265533447
0.16787531971931458 0.6416611671447754 0.7469626069068909
-0.0005474064964801073 0.17509619891643524 0.5057244896888733
0.0880187600851059 0.13878513872623444 0.15848271548748016
0.0880187600851059 0.13878513872623444 0.15848271548748016
0.22470813989639282 0.39873358607292175 0.2932547926902771
0.025454791262745857 0.0884510949254036 0.6885078549385071
-0.02080393023788929 0.15672339498996735 0.5161513686180115
-0.01607052981853485 0.1556277573108673 0.716890811920166
0.28004226088523865 0.19942030310630798 0.3205364942550659
0.04632692039012909 0.10197478532791138 0.5465270280838013
-0.013306385837495327 0.11963927000761032 0.5966225862503052
-0.02412555180490017 0.14290563762187958 0.6700088977813721
0.18852722644805908 0.10546573251485825 0.20794570446014404
0.15848945081233978 0.17183130979537964 0.16578011214733124
0.074977807700634 0.43549972772598267 0.31079745292663574
0.25238946080207825 0.24435794353485107 0.35460665822029114
0.28519147634506226 0.15894536674022675 0.3345380127429962
0.29339608550071716 0.19224445521831512 0.3218916952610016
-0.0028577353805303574 0.20296961069107056 0.549202561378479
0.2806343138217926 0.18999381363391876 0.29984790086746216
0.20706191658973694 0.02177172154188156 0.3277963697910309
0.20383185148239136 0.3092491626739502 0.22991661727428436
0.13607965409755707 0.16498784720897675 0.19471041858196259
0.1520409882068634 0.46394267678260803 0.5180475115776062
0.16050787270069122 0.4656484127044678 0.5231131315231323
0.06950502842664719 0.5407969951629639 0.42103108763694763
0.20351764559745789 0.45351991057395935 0.5599556565284729
0.1068195253610611 0.4482678174972534 0.488886296749115
0.07727628201246262 0.5214805603027344 0.4353314936161041
0.10807235538959503 0.4796711504459381 0.47785958647727966
0.36205819249153137 0.7109414339065552 0.4659775197505951
0.1930263638496399 0.48840299248695374 0.533814013004303
0.12542161345481873 0.4744054079055786 0.47648948431015015
0.11257966607809067 0.5315175652503967 0.4567681550979614
0.15509888529777527 0.47043463587760925 0.516308605670929
0.3904055058956146 0.4866860806941986 0.37317565083503723
0.21125032007694244 0.49990659952163696 0.5889965891838074
0.3068350553512573 0.49643394351005554 0.3530694544315338
0.14159239828586578 0.7906297445297241 0.7930759787559509
0.2002762258052826 0.16261079907417297 0.2568976581096649
-0.014683788642287254 0.3550117313861847 0.391794890165329
0.1938794106245041 0.6509810090065002 0.9712411761283875
-0.0027664208319038153 0.028497973456978798 0.197866752743721
0.16754135489463806 1.1525193452835083 1.499847173690796
0.13220173120498657 0.6399461030960083 0.9025654792785645
0.1645897924900055 0.6783855557441711 0.9575137495994568
0.1324368417263031 0.6502861976623535 0.91081303358078
-0.10870825499296188 0.11106514185667038 0.6035498976707458
6.483072000247614e-13 1.3417689268685473e-12 1.151824620924946e-12
0.12212420254945755 0.5782163143157959 0.8030803203582764
0.01035769097507 0.24718986451625824 0.3051803708076477
0.12863940000534058 0.5632680654525757 0.8182353377342224
0.2201768159866333 0.5833824276924133 0.8945153951644897
0.1024300679564476 0.7014340758323669 1.0276613235473633
0.16366782784461975 0.2172495424747467 0.8534910678863525
0.2781532406806946 0.9882987141609192 1.1656551361083984
0.3920973837375641 1.0011935234069824 1.2325624227523804
0.026664061471819878 0.04588417708873749 0.03949713706970215
0.0008713497663848102 0.011804326437413692 0.014969409443438053
15.5084867477417 286.6819152832031 227.27545166015625
0.20379307866096497 0.33519086241722107 0.26670703291893005
15.5084867477417 286.6819152832031 227.27545166015625
0.20558013021945953 1.6687875986099243 1.298341155052185
0.2873595952987671 0.21494869887828827 0.6282808184623718
0.2104235589504242 0.8432852029800415 1.0421549081802368
0.5021495819091797 3.6703646183013916 4.42888069152832
0.1689710021018982 0.33314311504364014 0.3466239869594574
0.022023798897862434 0.02935955673456192 0.037688419222831726
0.04213305190205574 -0.038830529898405075 0.07995735853910446
0.11979871988296509 0.0542641282081604 0.6819597482681274
0.024928871542215347 0.45289891958236694 0.9555457234382629
0.35429880023002625 -0.05498887598514557 0.6708129048347473
-0.05524088442325592 1.0412406921386719 1.1595399379730225
0.31139615178108215 0.17811153829097748 0.7286272048950195
0.323479562997818 0.18279623985290527 0.6348623633384705
0.2638024389743805 0.035066261887550354 0.4886074662208557
0.027838483452796936 -0.008428115397691727 0.7520260810852051
0.07916254550218582 0.43553468585014343 0.9078141450881958
0.2938164174556732 0.16604375839233398 0.5766332149505615
0.0735686719417572 -0.002074720337986946 0.23924963176250458
0.1775415688753128 0.2836293876171112 0.83480304479599
0.10899842530488968 0.3955002725124359 0.8339179754257202
0.06251531839370728 0.5053957104682922 0.9120683670043945
0.0378606840968132 0.0551883727312088 0.18806242942810059
0.030825136229395866 0.03399539366364479 0.15368230640888214
-0.23280446231365204 0.41894644498825073 1.4746460914611816
0.11860106885433197 -0.10430120676755905 0.5534785985946655
-0.16597296297550201 -0.06304459273815155 0.9980063438415527
0.05222991853952408 0.0663386657834053 0.18843159079551697
0.3665107190608978 0.44049692153930664 0.917743980884552
0.06579066067934036 0.37015753984451294 0.45605096220970154
0.18389445543289185 0.3600209355354309 0.37963107228279114
-0.224230095744133 0.6663863658905029 2.7729849815368652
0.044444117695093155 0.32452329993247986 0.6241214275360107
0.04431486874818802 -0.02441486530005932 0.3571133017539978
-0.00570361502468586 0.3754512667655945 0.27349624037742615
0.191238135099411 -0.019292160868644714 0.30555200576782227
-0.009737633168697357 0.2616296708583832 0.18629470467567444
0.05857478082180023 0.034287065267562866 0.36539021134376526
-0.006965634413063526 0.07821161299943924 0.46772944927215576
-0.019348058849573135 0.3459233045578003 0.8013502359390259
0.5292585492134094 7.439088344573975 8.092906951904297
0.5292585492134094 7.439088344573975 8.092906951904297
0.01744266040623188 -0.008178415708243847 0.09464602917432785
0.032798707485198975 0.017425354570150375 0.12679998576641083
-0.002792942803353071 -0.005559619981795549 0.09737338870763779
0.1542573720216751 0.42076483368873596 0.36896684765815735
0.027132704854011536 0.35166049003601074 0.12233465164899826
-0.005282774101942778 0.12062045931816101 0.5100061297416687
0.4124366343021393 0.8918746709823608 0.6389661431312561
0.39435896277427673 0.7864601612091064 0.5634207725524902
0.3981258273124695 0.7939723134040833 0.5688024759292603
-0.04425264149904251 0.412209153175354 0.43953877687454224
0.06675799190998077 -0.011942649260163307 0.03194333612918854
0.2626112699508667 0.6412524580955505 0.43006861209869385
-0.022590523585677147 0.5900686383247375 0.454867959022522
-0.0032485022675246 0.30711981654167175 0.32714521884918213
0.006309818476438522 0.30718278884887695 0.22824722528457642
-0.3082316815853119 0.20129473507404327 1.1903010606765747
0.06185412034392357 0.5766330361366272 0.6470614075660706
-0.236287921667099 0.3726430833339691 0.9757619500160217
0.2676817774772644 0.1316291242837906 1.1286005973815918
-0.3481753468513489 0.2980303168296814 2.0372934341430664
0.32539477944374084 0.13963350653648376 1.2864248752593994
0.09963326156139374 0.24736090004444122 1.2689887285232544
-0.2264871895313263 0.42054814100265503 1.1188627481460571
-0.6032469868659973 0.09150321781635284 1.8454164266586304
-0.24011895060539246 0.4116916358470917 0.8226346969604492
-0.14861346781253815 0.0196002759039402 1.3001564741134644
-0.24088652431964874 0.4540228545665741 0.8401950597763062
0.2323216050863266 0.5745998024940491 1.1809651851654053
0.10236097872257233 0.6897967457771301 1.1563639640808105
0.1007075235247612 0.8030281066894531 1.011614203453064
0.14929771423339844 0.6584670543670654 1.2189679145812988
0.13097351789474487 0.677855372428894 1.1471068859100342
0.10876481980085373 0.7172788977622986 1.1953343152999878
0.15700207650661469 0.64524906873703 0.6159595251083374
0.28900036215782166 0.5519115328788757 0.6190195679664612
0.12175533175468445 0.9205989837646484 1.5627827644348145
2.4312460800423067e-16 5.796228246852811e-15 4.8574895834981296e-15
0.1519991159439087 0.5878155827522278 0.6200243234634399
-1.2963174866259064e-16 5.470810894011918e-15 4.653923849350398e-15
0.15386049449443817 0.7489981055259705 1.0633896589279175
0.5979089140892029 0.2968346178531647 6.045572280883789
0.0226263590157032 0.01819721795618534 0.0751601979136467
0.20682713389396667 0.704630434513092 0.6787625551223755
0.023739954456686974 -0.00314487237483263 0.0334470197558403
0.02505378983914852 0.0002177295391447842 0.07736165821552277
0.04615642875432968 0.011753899045288563 0.11002293229103088
0.20682713389396667 0.704630434513092 0.6787625551223755
-0.022895902395248413 0.10685303062200546 0.16259010136127472
0.15874269604682922 0.632098913192749 0.612514853477478
0.04499807581305504 0.0043888995423913 0.07832308113574982
0.20682713389396667 0.704630434513092 0.6787625551223755
0.030268756672739983 0.007747255265712738 0.05412913113832474
0.021353593096137047 0.025870436802506447 0.04438289254903793
0.018008077517151833 0.05048436298966408 0.08171110600233078
0.007471800781786442 0.008649284020066261 0.03502317890524864
0.007471800781786442 0.008649284020066261 0.03502317890524864
0.004645259585231543 0.0545353963971138 0.04971446096897125
0.004645259585231543 0.0545353963971138 0.04971446096897125
0.004645259585231543 0.0545353963971138 0.04971446096897125
0.004645259585231543 0.0545353963971138 0.04971446096897125
0.11786733567714691 0.5898654460906982 0.9305920600891113
0.4454067349433899 1.866312861442566 2.993881940841675
0.10914724320173264 0.49943193793296814 0.7568423748016357
0.18138347566127777 0.8402126431465149 1.3392924070358276
0.09945689886808395 0.5501306056976318 0.8366836309432983
0.05350141599774361 0.3865763545036316 0.60027676820755
0.1062207818031311 0.5045074224472046 0.7652053236961365
0.5363547801971436 2.425407648086548 3.942401170730591
0.1062207818031311 0.5045074224472046 0.7652053236961365
0.1395546942949295 0.5025258660316467 0.7943934798240662
0.13531193137168884 0.5083787441253662 0.7792583703994751
0.13845625519752502 0.5071965456008911 0.78363037109375
0.05230337008833885 0.37766072154045105 0.5858684182167053
0.11645299941301346 0.5437409281730652 0.8399995565414429
0.15564373135566711 0.6267802715301514 0.9410064816474915
0.12534654140472412 0.4875022768974304 0.7503305077552795
7.756122133439902e-13 9.19818800119987e-13 1.1462260177466654e-12
0.4728451669216156 0.5157687664031982 0.6396937966346741
4.173839279839747e-13 4.556435524022406e-13 5.817878730857151e-13
0.45070260763168335 0.3293692171573639 0.7648851871490479
0.34989747405052185 0.8803887367248535 0.8608893156051636
-13.113329887390137 61.408164978027344 63.53776931762695
0.22100195288658142 0.2596685588359833 0.3161856532096863
0.5195321440696716 0.32053616642951965 0.5694589018821716
0.23711280524730682 0.11300947517156601 0.27031150460243225
0.06650270521640778 -0.05919526517391205 0.021402083337306976
0.44394609332084656 0.565802276134491 0.6948234438896179
0.44394609332084656 0.565802276134491 0.6948234438896179
0.03218677639961243 0.4292110800743103 0.7961273193359375
0.06292440742254257 0.09478006511926651 0.32283613085746765
0.012619798071682453 0.4703808128833771 0.7534278631210327
0.09643790870904922 0.5626703500747681 0.9428279399871826
0.05306747183203697 0.6846790909767151 1.0188136100769043
-0.10030180215835571 0.31208813190460205 0.28833839297294617
1.7984157800674438 1.5275787115097046 3.7259185314178467
0.08067360520362854 0.5337576866149902 0.9403175711631775
-0.0726337879896164 0.7435337901115417 0.802338182926178
-0.0177021324634552 0.47374606132507324 0.6227697134017944
0.0059297047555446625 0.48653534054756165 0.725160539150238
0.07748052477836609 0.5619453191757202 0.9370404481887817
4.0144243240356445 4.7747344970703125 9.965036392211914
-0.012318036518990993 0.5100540518760681 0.6321650743484497
-0.06609582155942917 0.36953461170196533 0.5300342440605164
